ply
format ascii 1.0
element vertex 1157
property float x
property float y
property float z
property uchar red
property uchar green
property uchar blue
end_header
-3.7579668 -62.046516 -8.763071 255 125 0
-2.5670853 -69.68133 8.240873 255 125 0
-2.4996228 -65.74518 -3.2348342 255 125 0
-3.9276571 -65.66792 -3.8828912 255 125 0
-3.83839 -65.5121 -0.83622646 255 125 0
-3.1248567 -63.273052 -6.8835907 255 125 0
-3.9866226 -64.10803 4.0751305 255 125 0
-2.2198725 -62.91677 -5.1715775 255 125 0
-2.0405502 -57.630188 -4.0557675 255 125 0
-1.4142039 -68.090324 -3.9490652 255 125 0
-3.5029314 -66.3313 4.205765 255 125 0
-1.2261337 -70.83038 -5.336697 255 125 0
-2.842714 -60.123146 -3.4617357 255 125 0
-3.8727384 -64.60478 -7.4904995 255 125 0
-2.4783735 -66.45261 -4.772996 255 125 0
-2.4195263 -65.39682 -5.3305955 255 125 0
-2.7711957 -70.420746 8.0517645 255 125 0
-5.093473 -64.4439 1.9336175 255 125 0
-3.7963746 -65.97679 2.5559392 255 125 0
-2.0194304 -68.0821 -2.252919 255 125 0
-2.984552 -59.604828 -5.76815 255 125 0
-3.4791472 -63.13198 2.0208259 255 125 0
-3.066195 -57.709183 -3.5463054 255 125 0
-2.8240902 -67.22896 -3.517393 255 125 0
-1.6328406 -63.10321 -6.6280174 255 125 0
-1.1530011 -70.26645 -5.328662 255 125 0
-2.6477585 -65.51884 9.449265 255 125 0
-2.31494 -66.53013 8.940447 255 125 0
-4.405931 -66.60681 7.396646 255 125 0
-4.2027774 -61.11486 -7.3543167 255 125 0
-3.4488835 -66.61136 -5.743384 255 125 0
-5.429801 -65.78528 3.0881624 255 125 0
-0.46222004 -68.87976 -3.2240367 255 125 0
-2.7510877 -65.17147 -7.861832 255 125 0
0.40019724 -57.160812 -4.4534283 255 125 0
-1.6487485 -62.823853 -6.0581512 255 125 0
-3.9391983 -66.46402 -2.5908673 255 125 0
-0.9906538 -69.63997 -4.6879807 255 125 0
-3.4206414 -60.864914 -1.9873266 255 125 0
-0.28877962 -58.320187 -3.719654 255 125 0
-0.6330366 -58.24144 -2.7575629 255 125 0
-5.0188546 -61.51419 0.1584516 255 125 0
-4.8419504 -68.16132 7.2721443 255 125 0
-3.6945834 -64.0259 4.1657534 255 125 0
-4.806553 -67.19904 7.2519646 255 125 0
-1.0025784 -68.45603 -3.8346364 255 125 0
-0.7362652 -55.981148 -4.0298142 255 125 0
-3.3741834 -64.12608 0.35146067 255 125 0
-3.6023903 -59.848705 -0.990499 255 125 0
-4.3779364 -65.78373 0.06619256 255 125 0
-2.282375 -65.41497 -3.5632782 255 125 0
-2.3325667 -65.70055 -5.574989 255 125 0
-0.7355086 -68.92163 -4.5572634 255 125 0
-3.2537968 -67.779 10.0311365 255 125 0
-3.1105237 -65.0604 -3.9351366 255 125 0
-4.0149884 -66.389084 1.0576018 255 125 0
-3.8018987 -69.93896 8.972223 255 125 0
-2.5095372 -66.66262 8.606191 255 125 0
-4.6730537 -61.239414 0.17935275 255 125 0
-1.4996493 -67.15831 -3.2282603 255 125 0
-4.8768873 -67.49339 7.3001795 255 125 0
-1.4168448 -68.63208 -4.5739036 255 125 0
-3.7606304 -69.80231 7.8163915 255 125 0
-4.2816515 -61.167625 0.1655373 255 125 0
-0.94990396 -70.76315 -5.303303 255 125 0
-1.2169453 -58.007935 -2.2172406 255 125 0
-2.6590004 -65.547935 -7.2972584 255 125 0
-2.0772514 -62.260616 -8.857613 255 125 0
-3.592455 -57.93216 -3.3724856 255 125 0
-2.6779652 -59.3247 -4.1318107 255 125 0
-3.674835 -59.548805 -1.1220081 255 125 0
-3.4598744 -65.62209 -1.7912589 255 125 0
-1.9002329 -61.87522 -8.020417 255 125 0
-2.3673856 -63.51671 -5.99727 255 125 0
-4.6987743 -59.189053 -5.9052415 255 125 0
1.2959929 -56.84021 -2.5397978 255 125 0
-1.3571129 -69.80126 -4.78798 255 125 0
-1.2254196 -56.893097 -4.243137 255 125 0
0.8262001 -57.335087 -4.350695 255 125 0
0.7949471 -57.51388 -2.9744892 255 125 0
-4.8759375 -65.91544 5.5563135 255 125 0
-5.0381966 -65.933914 1.8734158 255 125 0
-2.6781416 -58.64521 -4.188884 255 125 0
-2.5591364 -59.63404 -3.7749338 255 125 0
-3.890268 -67.02418 -3.2285452 255 125 0
-3.972828 -66.48662 0.5852613 255 125 0
-0.8408626 -64.67558 -9.168249 255 125 0
-3.210753 -67.44893 -2.3799021 255 125 0
-4.4329586 -68.70334 8.004605 255 125 0
-2.7075143 -66.46643 -5.8251944 255 125 0
-3.2733629 -61.458008 -6.851021 255 125 0
-4.391536 -66.375496 1.0849851 255 125 0
-1.97924 -64.60112 -7.5375233 255 125 0
-4.7872405 -58.863506 -4.920037 255 125 0
-1.316989 -71.725525 0.38946092 255 125 0
-1.7464073 -64.30044 -8.301031 255 125 0
-3.2918768 -64.54343 6.658127 255 125 0
-2.6937828 -65.72501 2.1419241 255 125 0
-1.2550513 -68.60107 -2.8670301 255 125 0
-1.6234856 -64.07465 -8.170619 255 125 0
-2.6262805 -66.04311 -1.1267943 255 125 0
-2.4330013 -58.953846 -4.082593 255 125 0
-3.8123293 -65.18619 8.06265 255 125 0
-4.882207 -58.770973 -3.3321095 255 125 0
-2.7719727 -61.38269 -7.0024433 255 125 0
-4.6452646 -60.00715 -1.1176999 255 125 0
-4.9146156 -61.22843 0.0346209 255 125 0
-4.406732 -65.98508 7.1440873 255 125 0
-3.2343311 -59.762768 -5.0345078 255 125 0
-3.5199528 -65.43375 -7.516486 255 125 0
-4.8368235 -64.32595 0.4898849 255 125 0
-3.617015 -66.333084 0.7799398 255 125 0
-4.325631 -66.18531 -0.124127716 255 125 0
-2.6126935 -65.98215 4.1795425 255 125 0
-3.0840347 -64.51238 -8.502758 255 125 0
-1.2016048 -67.00411 -1.9274709 255 125 0
-2.9293828 -64.46399 2.770482 255 125 0
-0.65235734 -70.40817 -1.1173052 255 125 0
-3.3101788 -67.590935 10.426297 255 125 0
-3.9820178 -58.54119 -2.0192997 255 125 0
-2.9056334 -61.18455 -8.9919815 255 125 0
-4.7365456 -67.77713 7.629835 255 125 0
-4.625293 -65.937454 0.8683841 255 125 0
-3.681946 -67.09723 7.791123 255 125 0
-2.4937577 -67.33392 -3.1179776 255 125 0
-3.9061003 -65.38419 -4.786186 255 125 0
-3.8988793 -66.82448 7.9563637 255 125 0
-0.5854558 -66.54539 -9.898087 255 125 0
-5.241168 -66.72332 4.0665236 255 125 0
-2.0504391 -58.862823 -1.7836996 255 125 0
-0.36010423 -66.69275 -10.302571 255 125 0
-2.5514934 -65.23361 4.531349 255 125 0
-0.98211646 -70.94763 -0.2562141 255 125 0
-4.88996 -65.09217 3.7518525 255 125 0
-3.0447001 -59.43334 -5.170383 255 125 0
-4.292435 -60.331024 -0.65658015 255 125 0
-0.7370124 -64.897316 -9.369386 255 125 0
-3.4033449 -64.28911 5.402932 255 125 0
-4.8824334 -59.30141 -2.6933749 255 125 0
-4.1767683 -61.691017 0.76098126 255 125 0
0.19504482 -69.76817 -2.4963286 255 125 0
-3.024684 -57.38379 -3.0426369 255 125 0
-2.1348524 -58.042576 -4.078919 255 125 0
-0.6732385 -68.34235 -3.6909685 255 125 0
-3.9562354 -66.983955 6.4794493 255 125 0
-0.81616825 -68.54929 -4.058184 255 125 0
-3.5434065 -65.612015 -7.2984157 255 125 0
-3.9644723 -66.39781 -1.1268562 255 125 0
-2.3579147 -70.96759 8.544581 255 125 0
-3.1582284 -60.514393 -1.8434813 255 125 0
-0.9960115 -70.4072 -1.4988744 255 125 0
-3.4138663 -58.88987 -1.3958735 255 125 0
-5.407931 -62.35798 0.023404256 255 125 0
-3.7512693 -63.37615 -0.10119049 255 125 0
0.66824496 -56.63243 -2.3850656 255 125 0
-3.304392 -60.602535 -1.1329803 255 125 0
-1.747648 -56.299164 -3.061267 255 125 0
-3.4270217 -63.096676 1.0365914 255 125 0
-3.0764153 -60.095024 -1.2932072 255 125 0
-1.8145568 -58.110928 -4.1291294 255 125 0
-3.6560867 -60.87557 -3.184899 255 125 0
-1.295015 -64.28554 -8.42096 255 125 0
-3.025632 -69.30324 8.848553 255 125 0
-3.8664308 -70.47536 8.795408 255 125 0
-4.540495 -67.14333 7.5112996 255 125 0
-0.783075 -71.09706 -0.7179543 255 125 0
-0.8041348 -67.988464 -10.675283 255 125 0
-3.7900052 -57.96107 -3.1006958 255 125 0
-5.1924124 -65.97972 4.7604065 255 125 0
-3.0355618 -66.33284 6.1964083 255 125 0
-2.4486632 -65.917725 -1.362899 255 125 0
-1.963996 -64.2205 -6.6641116 255 125 0
-2.5311792 -65.502945 -3.4067311 255 125 0
-0.95712197 -58.762905 -3.5399642 255 125 0
-0.73598826 -70.28491 -4.8162465 255 125 0
-4.5460405 -65.610214 5.966214 255 125 0
-0.5836973 -67.36267 -10.717877 255 125 0
-2.4874039 -57.5047 -2.203704 255 125 0
-4.4192014 -59.507385 -6.9738708 255 125 0
-2.9953885 -62.505066 -7.1685214 255 125 0
-4.0376444 -66.122795 -3.4876382 255 125 0
-2.6388621 -67.839325 -2.0962918 255 125 0
-2.6865356 -65.58371 2.406881 255 125 0
-3.1185303 -65.32075 0.11033146 255 125 0
-0.42222303 -58.255722 -3.0069947 255 125 0
-0.554374 -69.754814 -2.0992694 255 125 0
-4.04939 -66.49484 5.357991 255 125 0
-5.1579394 -60.21592 -4.6592345 255 125 0
-0.26469514 -56.560783 -2.4447405 255 125 0
-3.7072082 -66.3555 -5.9724402 255 125 0
-2.985998 -58.99246 -6.8048925 255 125 0
-4.8543615 -59.601963 -2.244014 255 125 0
-2.8450243 -64.82544 1.212948 255 125 0
-4.5130386 -60.648674 -4.214036 255 125 0
-3.5705686 -66.30354 5.0257626 255 125 0
-0.7856885 -58.012104 -4.229365 255 125 0
-5.1052365 -59.2838 -4.1288996 255 125 0
-2.9114127 -59.998802 -3.745757 255 125 0
-3.7168984 -62.598473 1.4824368 255 125 0
-4.8766317 -64.214066 2.8264797 255 125 0
-3.3290014 -69.5574 7.654723 255 125 0
-3.6408525 -60.871986 -2.8962007 255 125 0
-1.593999 -70.86043 -5.1724076 255 125 0
-4.1788955 -61.1862 -7.6769824 255 125 0
-1.0648582 -64.94543 -9.379827 255 125 0
-3.1649122 -66.95455 7.8141956 255 125 0
-2.5835562 -64.84148 -5.1568403 255 125 0
-3.7424505 -66.478355 5.8019857 255 125 0
-2.9807146 -60.286034 -6.249527 255 125 0
-4.8009825 -65.71248 4.978562 255 125 0
-2.6834702 -69.45104 8.630876 255 125 0
-3.5308733 -63.85911 -6.5013247 255 125 0
-1.7932844 -73.023125 -4.8007407 255 125 0
-0.26059908 -69.80384 -1.9516158 255 125 0
-3.6282938 -58.575565 -5.271723 255 125 0
-3.9236515 -65.26701 -6.569028 255 125 0
-0.12115719 -68.59166 -3.0079923 255 125 0
-3.732517 -62.81002 -0.35025695 255 125 0
-2.5493948 -65.82067 -2.8537793 255 125 0
-1.3183873 -68.05958 -4.216854 255 125 0
-2.6793838 -66.51254 -5.5434904 255 125 0
-3.1762376 -71.64272 8.424032 255 125 0
-4.3804026 -60.60974 -7.0592217 255 125 0
-2.0631618 -61.86594 -7.6768312 255 125 0
-4.292202 -65.88664 -0.38955748 255 125 0
-0.92921317 -68.36282 -3.5497472 255 125 0
-2.8731885 -59.08561 -1.3402053 255 125 0
-2.1575696 -59.411324 -2.3662205 255 125 0
-1.6902022 -68.13434 -2.1068385 255 125 0
-2.1583552 -66.45156 9.433242 255 125 0
-0.649711 -68.772446 -4.783499 255 125 0
-1.781193 -66.91427 10.519777 255 125 0
-3.522185 -71.380005 8.608427 255 125 0
-3.8977265 -65.73896 -6.391087 255 125 0
-2.453926 -65.83396 -2.5587168 255 125 0
-2.1483896 -63.597973 -8.919126 255 125 0
-4.093546 -66.41533 -0.7357903 255 125 0
-4.282563 -63.267483 -0.8115323 255 125 0
0.15410827 -57.67444 -2.709325 255 125 0
-4.760617 -59.584045 -6.01948 255 125 0
-1.2039931 -68.432106 -4.689086 255 125 0
-3.5278487 -63.65854 -8.714549 255 125 0
-5.013877 -66.63271 3.5877852 255 125 0
-3.8346298 -61.48729 -8.610202 255 125 0
-0.11411782 -58.159576 -3.1597507 255 125 0
-1.5748063 -71.3369 -4.793692 255 125 0
-4.592841 -63.371555 2.48811 255 125 0
-3.2440405 -63.064274 -7.085823 255 125 0
1.2796296 -56.49942 -2.428557 255 125 0
-3.187363 -67.32154 -3.9269853 255 125 0
-3.9454622 -58.725357 -1.7840761 255 125 0
-1.8675094 -62.87291 -5.839606 255 125 0
-5.3094435 -60.853558 -1.7095137 255 125 0
0.5537317 -57.76097 -3.2364235 255 125 0
-0.9237637 -70.44063 -1.8486311 255 125 0
-3.4442544 -65.36903 -3.5527983 255 125 0
-5.0269513 -60.24731 -1.512212 255 125 0
-4.4291787 -66.57488 4.722814 255 125 0
-3.803929 -62.354553 1.2769804 255 125 0
-5.2708435 -60.583942 -2.1642234 255 125 0
-3.0883117 -66.75955 10.613608 255 125 0
-3.6971285 -61.476982 0.012842731 255 125 0
-4.908727 -63.60211 -0.45453432 255 125 0
-4.277836 -60.823105 -0.21023434 255 125 0
-0.8457604 -67.40887 -4.096921 255 125 0
-2.2806659 -66.66145 -3.3464015 255 125 0
-1.3058159 -67.70241 -3.857574 255 125 0
-2.5516229 -66.11328 -6.239767 255 125 0
-3.334713 -64.735085 7.539832 255 125 0
-2.4858477 -69.96899 8.269394 255 125 0
-3.4849634 -65.90936 2.58411 255 125 0
-3.4322171 -67.553734 7.548046 255 125 0
-4.988145 -59.721725 -5.616732 255 125 0
-5.096872 -61.885235 -1.9322331 255 125 0
-2.372378 -62.87909 -6.818061 255 125 0
-3.6795535 -57.866505 -2.7479208 255 125 0
-0.25820482 -67.78545 -3.7023618 255 125 0
-3.2251692 -59.21628 -7.8407674 255 125 0
-4.6162753 -58.640568 -4.31799 255 125 0
-1.2091866 -56.81016 -2.3570828 255 125 0
-2.387993 -65.8604 9.412382 255 125 0
-1.1386395 -68.22739 -2.1072106 255 125 0
-0.8155103 -66.18672 -10.070733 255 125 0
-0.40583616 -67.62943 -3.8863928 255 125 0
-3.319022 -64.2114 1.1833508 255 125 0
-2.5102057 -64.170166 -5.873301 255 125 0
-1.8160967 -58.64553 -2.0379817 255 125 0
-3.2145104 -64.03003 1.7217245 255 125 0
-3.8941443 -63.697273 3.4855309 255 125 0
-5.4198666 -65.92958 4.083228 255 125 0
-5.1713495 -63.61679 -0.13181576 255 125 0
-3.179088 -70.48383 7.990064 255 125 0
-3.066695 -66.00018 0.13545789 255 125 0
-2.1216433 -64.63473 -7.95938 255 125 0
-3.894175 -64.99097 -6.418579 255 125 0
-2.719832 -62.91841 -4.9101677 255 125 0
-3.4455876 -67.08109 10.185087 255 125 0
-2.9487462 -59.388058 -1.3550073 255 125 0
-2.9891791 -65.53472 -2.6549976 255 125 0
0.46887383 -57.433144 -4.335127 255 125 0
-0.66252553 -67.351364 -2.3750997 255 125 0
-1.6481202 -63.781887 -8.395771 255 125 0
-3.3212056 -64.36844 5.7391987 255 125 0
-2.8791964 -65.368095 -3.3342147 255 125 0
-3.1993725 -64.31467 1.8482435 255 125 0
-0.28846535 -70.54892 -2.0030982 255 125 0
-4.2905326 -64.787 5.1666803 255 125 0
-1.8672088 -63.374596 -6.0466046 255 125 0
-3.4526706 -60.668434 -3.3096962 255 125 0
-4.2088695 -66.727684 5.612974 255 125 0
-5.1638775 -59.314644 -3.197431 255 125 0
-3.8253675 -58.37565 -4.584339 255 125 0
-5.1451178 -60.216724 -2.2188988 255 125 0
-4.467733 -65.57918 0.772267 255 125 0
-4.455611 -60.12886 -6.8327065 255 125 0
-3.920001 -66.20398 8.580999 255 125 0
-5.1708765 -64.09826 1.1022856 255 125 0
-3.9053297 -66.00798 -6.0283937 255 125 0
-5.4463587 -66.921844 5.1907916 255 125 0
-0.2734449 -55.387867 -3.4062512 255 125 0
-3.2750661 -66.96886 10.474333 255 125 0
-3.7619312 -59.197533 -7.624567 255 125 0
-2.1237943 -57.20996 -2.313251 255 125 0
-5.2304726 -62.93622 1.0211765 255 125 0
-3.3760717 -64.286415 -1.0438946 255 125 0
-2.7717636 -64.48133 4.8952374 255 125 0
-0.72050595 -69.67972 -4.9686737 255 125 0
-3.1138997 -66.10483 4.8124933 255 125 0
-1.9020464 -67.83087 10.149395 255 125 0
-2.9415317 -69.59393 8.955888 255 125 0
0.025797721 -56.400433 -2.4890428 255 125 0
-4.373378 -60.594482 -4.63665 255 125 0
-0.8461055 -65.40797 -9.302062 255 125 0
-4.450329 -59.243874 -1.8526328 255 125 0
-3.3214202 -60.891235 -1.6983578 255 125 0
-2.6498785 -58.80178 -1.387961 255 125 0
-3.432164 -65.12337 8.665032 255 125 0
-3.692113 -65.43424 -3.845859 255 125 0
-2.6855202 -65.99451 10.2717 255 125 0
-0.9120324 -68.88507 -2.3901634 255 125 0
-4.6779284 -64.21544 0.20854513 255 125 0
-3.562148 -64.81158 7.740329 255 125 0
-4.416732 -62.31398 1.5002297 255 125 0
-2.8284516 -64.90675 -4.4772773 255 125 0
-2.8696542 -66.597626 -1.0849816 255 125 0
-2.3151932 -65.872444 -3.6854017 255 125 0
-3.83983 -63.27717 2.8095632 255 125 0
-3.5296078 -62.688515 0.7040824 255 125 0
-4.5265393 -60.107143 -6.522688 255 125 0
-2.5927954 -64.89542 3.6261446 255 125 0
-3.5669727 -62.400887 0.19148855 255 125 0
-3.5717254 -63.69072 0.35379633 255 125 0
-2.719075 -65.664734 5.1048856 255 125 0
0.81860244 -57.644035 -3.2671165 255 125 0
-2.746665 -64.70775 5.9510126 255 125 0
-4.304583 -64.6346 0.53286237 255 125 0
-3.7269366 -69.053085 7.423901 255 125 0
-2.24061 -64.543205 -8.199002 255 125 0
-4.162958 -59.92655 -7.6436653 255 125 0
-3.1692383 -60.436188 -1.3544 255 125 0
-2.8565032 -70.05489 7.9422626 255 125 0
-1.7387989 -63.058716 -8.352352 255 125 0
-2.5776749 -65.67051 -1.5116224 255 125 0
-3.9909143 -65.70739 -5.428976 255 125 0
-1.3223053 -58.90021 -3.6633933 255 125 0
-5.004125 -63.62092 1.9129386 255 125 0
-3.2556815 -65.805176 2.3952243 255 125 0
-0.93026197 -70.042435 -5.2795906 255 125 0
-1.9686322 -66.76819 9.906275 255 125 0
-2.6730485 -65.88985 6.3091545 255 125 0
-4.9923463 -59.62988 -2.6531482 255 125 0
-4.9003167 -66.7263 6.748061 255 125 0
-2.138086 -62.949028 -6.5428224 255 125 0
-0.6211606 -69.924324 -2.5488024 255 125 0
-4.045778 -66.50943 -0.13467336 255 125 0
-3.3655648 -60.54448 -3.559466 255 125 0
-3.1899931 -60.474125 -3.1865485 255 125 0
-1.5216652 -62.894016 -6.435446 255 125 0
-3.6854992 -58.89723 -1.4735364 255 125 0
-3.7267544 -64.00014 -6.8750486 255 125 0
-3.8621805 -62.739155 -7.846898 255 125 0
-0.48233002 -65.231766 -9.538422 255 125 0
-1.8136129 -67.942986 -1.8945951 255 125 0
-1.1879067 -66.80763 -2.6831684 255 125 0
-2.137066 -63.1713 -8.991791 255 125 0
-0.10156166 -68.27848 -2.986409 255 125 0
-3.3592181 -68.44783 8.432872 255 125 0
-2.4991555 -65.201096 -3.5912335 255 125 0
-5.2424097 -60.787537 -2.540472 255 125 0
-4.662833 -68.05792 6.9012547 255 125 0
-3.034111 -62.74669 -9.175632 255 125 0
-1.6683162 -58.954247 -3.7423298 255 125 0
-3.2016435 -64.19913 -0.33079034 255 125 0
-4.9551506 -63.899506 2.2765307 255 125 0
-3.6671393 -63.835922 0.08859219 255 125 0
-4.517045 -64.0609 3.3189404 255 125 0
-2.3537858 -66.30637 -3.4967663 255 125 0
-3.815575 -58.16952 -2.273051 255 125 0
-1.0360538 -70.787735 -0.5606488 255 125 0
-5.12349 -59.93244 -5.3643003 255 125 0
-2.495072 -65.64331 2.774085 255 125 0
-2.6066499 -59.396774 -1.4969358 255 125 0
-5.4635487 -62.814804 -0.49559665 255 125 0
-2.8648732 -66.45175 3.706886 255 125 0
-4.1917715 -62.75394 2.128779 255 125 0
-4.9410367 -63.89325 -0.042449694 255 125 0
-3.0559754 -69.014244 8.665481 255 125 0
-2.3173382 -65.776474 -2.1430924 255 125 0
-4.596137 -68.25501 7.1104927 255 125 0
-4.000521 -66.35542 -3.2836633 255 125 0
-1.5946704 -63.42044 -8.153648 255 125 0
-2.8344665 -69.34007 7.885737 255 125 0
-2.2259712 -57.554173 -2.0744052 255 125 0
-4.0996943 -62.782207 -1.1452057 255 125 0
-3.6453524 -61.239365 -1.9599395 255 125 0
0.005201701 -69.72626 -2.885292 255 125 0
-2.4934413 -59.883842 -3.0250385 255 125 0
-5.1490555 -63.814835 0.18301979 255 125 0
-4.702285 -64.666756 3.6614094 255 125 0
-3.9284549 -69.38743 8.750929 255 125 0
1.2955893 -57.416996 -4.0453687 255 125 0
-4.963798 -62.801476 -1.2472543 255 125 0
-3.2334228 -64.488754 1.5185074 255 125 0
-1.9332085 -58.97544 -2.1441233 255 125 0
-3.05125 -61.576946 -6.982113 255 125 0
-3.3646488 -64.90336 -8.124246 255 125 0
-3.8641086 -64.48924 -7.218587 255 125 0
-3.1251545 -60.319046 -3.5899305 255 125 0
-5.23682 -63.83266 1.1966833 255 125 0
-2.3865204 -65.32689 -4.2573647 255 125 0
-4.627514 -59.85335 -6.3151417 255 125 0
-1.6361711 -71.72443 0.6450926 255 125 0
-5.118557 -65.12074 2.2916157 255 125 0
-3.5905983 -65.03068 -7.829027 255 125 0
-2.4925582 -65.23276 -5.0616255 255 125 0
-4.7167764 -66.73271 6.9888725 255 125 0
-3.295448 -63.562813 2.2785797 255 125 0
-3.9795313 -59.120697 -7.3910007 255 125 0
-1.6148021 -64.06349 -7.1399403 255 125 0
-2.7641313 -64.46932 4.602429 255 125 0
-2.303893 -65.41221 -5.957402 255 125 0
-3.7695718 -63.57289 -8.4614 255 125 0
-0.28747302 -66.656784 -9.950576 255 125 0
-4.9548287 -59.35957 -5.520071 255 125 0
-3.23293 -63.73546 2.638459 255 125 0
-4.6186705 -65.03279 4.296483 255 125 0
-3.272063 -62.80255 -9.033987 255 125 0
-3.692183 -58.485844 -6.268143 255 125 0
-3.8346467 -66.65521 6.328227 255 125 0
-2.2404327 -60.906197 -7.9175825 255 125 0
-2.5911822 -65.10553 -4.8059883 255 125 0
-3.9702516 -62.533848 -1.2118058 255 125 0
-3.1785913 -67.33041 -3.6310186 255 125 0
-3.2917829 -67.06241 8.269769 255 125 0
-3.4594975 -59.07749 -7.6161385 255 125 0
-3.6431932 -63.89461 3.8944507 255 125 0
-3.8302646 -66.2021 3.282576 255 125 0
-0.658469 -67.63455 -2.3434753 255 125 0
-4.63902 -67.65796 6.2788258 255 125 0
-3.5334563 -65.831635 1.6957108 255 125 0
-2.6531496 -59.755634 -1.6001803 255 125 0
-4.8827443 -62.606304 -1.4910696 255 125 0
-2.4846065 -60.770756 -7.1665807 255 125 0
-3.4679294 -61.74163 -0.41222292 255 125 0
1.0467798 -56.088295 -2.4687142 255 125 0
-5.071544 -64.38619 1.1228719 255 125 0
-1.4095376 -63.328842 -7.639452 255 125 0
1.263067 -57.25335 -2.9921172 255 125 0
-3.7910342 -70.78028 8.780329 255 125 0
-2.477866 -71.24973 8.368393 255 125 0
-3.635776 -64.467064 -8.277216 255 125 0
-2.7042394 -64.59778 5.1729474 255 125 0
-4.832532 -67.47195 5.9317894 255 125 0
-1.9483235 -63.32669 -8.79459 255 125 0
-3.0568452 -66.26855 10.280045 255 125 0
-4.5667953 -63.702652 2.906778 255 125 0
-3.3768177 -67.866714 7.453824 255 125 0
-4.1017733 -66.037575 7.909877 255 125 0
-3.9304867 -64.9596 0.18167704 255 125 0
-5.061651 -67.29834 5.6414223 255 125 0
-5.4802136 -66.07048 3.2033308 255 125 0
-1.8956594 -62.60953 -7.5383596 255 125 0
-3.9243371 -62.43093 -8.1570835 255 125 0
-1.9627333 -64.43567 -8.1443405 255 125 0
-3.8467822 -64.92303 -7.2876115 255 125 0
-3.7137175 -66.315636 3.6337743 255 125 0
-4.1833935 -61.056236 -7.035534 255 125 0
-3.6817234 -70.18065 9.113358 255 125 0
-2.6773107 -65.25693 8.471865 255 125 0
-4.314412 -59.955997 -7.3535824 255 125 0
-0.9872429 -68.765175 -4.910337 255 125 0
-3.7429044 -64.317314 5.318957 255 125 0
-0.90453523 -67.68492 -2.1395102 255 125 0
-3.3187287 -65.57313 -2.4189062 255 125 0
-1.3000209 -57.69876 -4.2544074 255 125 0
-4.0356913 -60.44626 -7.9459953 255 125 0
-2.5879724 -66.59007 -5.0683846 255 125 0
-3.8817809 -66.39928 -2.0877266 255 125 0
-3.3623998 -58.52675 -1.575275 255 125 0
-4.2772503 -59.23812 -1.6279396 255 125 0
-1.9701514 -67.08444 9.81878 255 125 0
-5.134055 -67.41058 6.010257 255 125 0
-3.7334683 -66.48056 -5.6859875 255 125 0
-2.2249956 -66.11659 9.483877 255 125 0
-0.45150024 -70.8651 -0.81173825 255 125 0
-3.4454412 -64.43032 -5.6681557 255 125 0
-2.8254788 -63.319725 -9.110979 255 125 0
-3.663354 -65.8291 -2.1250145 255 125 0
-3.4021454 -58.9099 -7.3365903 255 125 0
-3.1042895 -60.41426 -2.8556306 255 125 0
-2.6749878 -61.984577 -7.191971 255 125 0
-3.1006935 -59.032333 -7.444127 255 125 0
-0.2861837 -70.23134 -1.5396987 255 125 0
-3.6617818 -65.85781 2.2993703 255 125 0
-4.1232214 -66.11235 2.5419786 255 125 0
-0.8694626 -70.93838 -4.886794 255 125 0
-2.3014305 -57.779396 -3.99592 255 125 0
-1.5494816 -66.478584 -1.8582692 255 125 0
0.012761716 -57.986996 -4.049339 255 125 0
-2.8008394 -62.911617 -4.035652 255 125 0
-5.4733744 -62.496567 -0.68603086 255 125 0
-1.8453324 -73.71155 -4.405339 255 125 0
-3.8937614 -68.220116 6.9953504 255 125 0
-1.7195861 -67.72263 -3.1053045 255 125 0
-4.20327 -64.860794 6.0414515 255 125 0
-5.360315 -61.131233 -1.5634553 255 125 0
-3.5942092 -62.87663 1.7401239 255 125 0
-2.2852876 -62.756943 -9.137833 255 125 0
-2.9702945 -67.12242 -4.2799997 255 125 0
-2.825862 -66.2002 6.384926 255 125 0
-2.78413 -65.17511 -3.5996156 255 125 0
-5.030787 -60.545113 -1.048833 255 125 0
1.5028949 -57.284863 -3.3089929 255 125 0
-4.723612 -66.372665 2.4717517 255 125 0
-3.1053472 -65.52836 -1.9037443 255 125 0
-4.7972136 -61.48843 -2.4193583 255 125 0
-3.920835 -60.609135 -0.51575524 255 125 0
-0.7876073 -69.34901 -5.1647267 255 125 0
-5.565134 -66.62932 5.28953 255 125 0
-4.0254145 -65.758 -4.8808823 255 125 0
-3.300884 -70.139435 9.234716 255 125 0
-2.7800148 -65.877426 5.3262315 255 125 0
-3.8989809 -63.33354 -0.39616144 255 125 0
-2.347881 -68.11284 10.0421915 255 125 0
-2.7047486 -64.08001 -8.7910595 255 125 0
-2.3157325 -66.37168 -3.1834095 255 125 0
-5.306471 -62.1725 0.2490106 255 125 0
-4.4346952 -64.68831 4.2414236 255 125 0
0.04646306 -56.02229 -2.6152146 255 125 0
-1.1218728 -67.49485 -3.9736693 255 125 0
-3.686543 -65.80917 -1.831938 255 125 0
-2.5265682 -57.964855 -1.8016781 255 125 0
-3.2383604 -65.51058 -1.6267222 255 125 0
1.200521 -57.501255 -3.458809 255 125 0
-4.944331 -66.378784 6.2621255 255 125 0
-2.3097034 -67.98335 -2.0960078 255 125 0
-2.0037227 -56.455505 -3.1761887 255 125 0
-2.9505665 -65.40522 0.84747034 255 125 0
-3.7787807 -64.47151 -6.218463 255 125 0
-2.272511 -65.554474 -3.8215413 255 125 0
0.3477928 -57.660843 -4.1894274 255 125 0
-4.5248303 -66.4435 3.6563451 255 125 0
-0.35055014 -66.33248 -9.945027 255 125 0
-0.3003047 -70.78942 -1.2735096 255 125 0
-2.6324217 -59.999 -2.800734 255 125 0
-4.0420437 -69.60461 7.887274 255 125 0
-3.2185082 -64.728 -4.704672 255 125 0
-5.39896 -66.72363 4.7076526 255 125 0
-3.6643834 -64.0704 -0.29630336 255 125 0
-4.3712616 -67.105194 5.800992 255 125 0
-3.8782804 -65.87086 -3.2772658 255 125 0
-2.9027047 -64.008255 -5.822444 255 125 0
-2.233405 -58.35727 -1.6049639 255 125 0
-0.47503114 -65.61372 -9.660473 255 125 0
-3.141943 -67.71236 10.730543 255 125 0
-3.897104 -58.41935 -6.534485 255 125 0
-1.3729024 -68.46343 -2.607172 255 125 0
-4.9293256 -64.45281 0.8736274 255 125 0
-1.6706722 -71.38884 -5.113163 255 125 0
-3.3842323 -70.75877 9.328997 255 125 0
-4.829853 -60.833023 -3.199099 255 125 0
-0.75199187 -68.245 -2.3200974 255 125 0
-4.165558 -65.49386 0.07964809 255 125 0
-3.8107674 -63.154945 -7.652956 255 125 0
-2.4540129 -62.629333 -7.0276895 255 125 0
-4.0106077 -65.644775 7.927871 255 125 0
-3.9610555 -64.21648 0.07663508 255 125 0
-3.513451 -67.146324 8.569264 255 125 0
-3.2570138 -62.468887 -9.156344 255 125 0
-2.0227313 -63.582024 -6.2185144 255 125 0
-1.1181542 -58.816494 -3.1324794 255 125 0
-1.4365332 -71.56631 0.1692113 255 125 0
-2.27779 -64.14063 -8.665401 255 125 0
-1.097255 -58.650352 -2.8430774 255 125 0
1.2955108 -57.473183 -3.7343001 255 125 0
-3.324634 -57.9045 -2.1154037 255 125 0
-2.5862148 -65.17699 6.8322964 255 125 0
-4.1239095 -63.4863 -0.55594534 255 125 0
-2.518248 -62.168663 -9.210239 255 125 0
-4.501482 -60.46389 -6.103975 255 125 0
-4.4557886 -60.645508 -4.941515 255 125 0
-2.3553858 -59.391693 -1.7710413 255 125 0
-2.529623 -65.24333 5.6826878 255 125 0
-0.83576524 -66.525475 -10.16079 255 125 0
-3.7894254 -68.7616 7.272565 255 125 0
-3.0591683 -69.820206 9.101044 255 125 0
-1.5869756 -56.172714 -3.265795 255 125 0
-0.22956118 -57.291046 -2.3375275 255 125 0
-2.5866246 -65.61868 4.356647 255 125 0
-3.9689636 -64.63512 6.0102177 255 125 0
-3.6619694 -60.92758 -2.5989952 255 125 0
-1.5716373 -72.7236 -4.6779227 255 125 0
-2.9465623 -59.125786 -5.821894 255 125 0
-2.4293554 -70.27716 8.340313 255 125 0
-2.2590451 -64.975876 -7.542614 255 125 0
-4.642322 -68.39674 7.363697 255 125 0
-2.9408035 -58.54795 -4.2131724 255 125 0
-4.290483 -60.5717 -0.46166855 255 125 0
-4.6772623 -64.856895 3.9153562 255 125 0
-1.3449819 -69.27726 -4.9921865 255 125 0
-0.22833985 -56.875427 -2.3618631 255 125 0
-5.2384734 -66.66324 3.7651653 255 125 0
-3.5049372 -58.35135 -4.2311025 255 125 0
-2.9937272 -65.86571 2.5215402 255 125 0
-3.806136 -65.73587 -1.3051813 255 125 0
-4.196061 -58.88568 -7.028398 255 125 0
-5.0318174 -63.907032 1.988819 255 125 0
0.6958882 -57.048187 -2.462741 255 125 0
-2.9458406 -70.2348 9.226719 255 125 0
-3.779276 -62.21204 -1.2226472 255 125 0
-3.5238404 -66.60113 6.491706 255 125 0
-1.8782613 -66.11309 -1.8929212 255 125 0
-2.1547227 -61.94221 -8.861376 255 125 0
-0.8589425 -68.1281 -4.3848176 255 125 0
-2.933313 -60.23638 -2.1076388 255 125 0
-2.6698112 -64.47168 -5.3747325 255 125 0
-1.7919164 -63.6044 -8.578349 255 125 0
-3.824202 -66.029015 -2.288282 255 125 0
-2.6813536 -65.5782 -1.9929198 255 125 0
-2.942886 -65.06436 2.401001 255 125 0
-5.1357493 -63.931427 1.5471017 255 125 0
-4.996357 -67.13116 5.243378 255 125 0
-2.407604 -65.739006 3.0819192 255 125 0
-3.4103622 -64.40482 6.009508 255 125 0
-2.3692718 -65.984604 -5.538574 255 125 0
-3.1832256 -65.3575 -3.284299 255 125 0
-5.2653604 -62.688026 0.7545922 255 125 0
-4.7008176 -66.95855 5.1433215 255 125 0
-2.1740181 -66.307846 -2.8454757 255 125 0
-2.3754847 -66.394135 10.736611 255 125 0
-3.936171 -63.892952 3.7333722 255 125 0
-4.947471 -67.7126 6.998764 255 125 0
-2.5412889 -65.975815 7.5565643 255 125 0
-5.2337594 -59.63987 -4.671563 255 125 0
-4.2587304 -68.3129 8.218206 255 125 0
-3.5962915 -67.057274 -4.344764 255 125 0
-3.1250927 -63.97716 2.4987614 255 125 0
-4.503722 -65.838326 0.4646315 255 125 0
-2.9681647 -66.0833 5.2310143 255 125 0
-2.4963999 -65.331665 -4.6315875 255 125 0
-3.2049146 -64.48985 1.2381195 255 125 0
-0.92311215 -67.0869 -2.2300062 255 125 0
-3.042117 -64.5051 -5.169842 255 125 0
-3.2525444 -65.20369 -7.8666553 255 125 0
-3.880446 -61.25427 -8.439896 255 125 0
-0.9801855 -68.995384 -2.9232757 255 125 0
-4.309314 -65.53678 0.47802263 255 125 0
-4.2737203 -65.09062 6.3534255 255 125 0
-2.540195 -65.49555 8.697138 255 125 0
-4.2349253 -65.63092 7.363079 255 125 0
-4.6893196 -66.09171 6.3324203 255 125 0
-2.9092584 -62.18753 -7.1508784 255 125 0
-3.6469846 -71.18403 8.799872 255 125 0
-4.063366 -69.79018 8.183729 255 125 0
-4.205646 -66.12878 -0.8157525 255 125 0
-5.1498914 -61.44 -0.12437339 255 125 0
-5.1013827 -66.16225 2.367114 255 125 0
-5.144427 -66.52563 3.3196344 255 125 0
-3.7000833 -61.008957 -0.328696 255 125 0
-2.6013343 -60.33225 -6.7381797 255 125 0
-1.4569502 -70.1765 -5.1757803 255 125 0
-3.2470012 -66.95895 -1.5651816 255 125 0
-3.873688 -62.95936 -8.032345 255 125 0
-3.654243 -61.143864 -6.552589 255 125 0
-3.6908808 -66.73997 -1.8702482 255 125 0
-5.0767894 -62.588142 1.1138697 255 125 0
-3.4437041 -65.88228 1.42134 255 125 0
-4.132147 -66.81506 7.7969604 255 125 0
-3.933669 -65.3061 7.8232346 255 125 0
-3.793211 -69.52935 7.6757584 255 125 0
-4.1360445 -62.510036 1.8208165 255 125 0
-0.6559478 -69.03102 -4.953583 255 125 0
-5.051915 -60.21689 -5.3000426 255 125 0
-2.2982063 -59.62269 -2.5562863 255 125 0
-3.6227024 -60.81109 -0.54441994 255 125 0
-3.1853728 -58.760002 -4.970796 255 125 0
-2.4227853 -62.9141 -4.818387 255 125 0
-3.530857 -61.326595 -6.784416 255 125 0
-4.8389997 -60.405712 -5.3536263 255 125 0
-4.0350504 -60.952164 -0.11790732 255 125 0
-2.7127519 -65.8711 4.42358 255 125 0
-3.7757878 -66.15515 -6.2303486 255 125 0
-4.673568 -62.734386 1.7420044 255 125 0
-5.1762705 -65.91624 2.1782298 255 125 0
-2.6705968 -66.20639 7.3223934 255 125 0
-3.584834 -66.159874 -6.4803834 255 125 0
-3.2187324 -63.899284 3.5005844 255 125 0
-4.101819 -58.179142 -2.7930636 255 125 0
-1.9939499 -67.57578 -3.0016434 255 125 0
-4.4893622 -61.673058 0.7575291 255 125 0
-4.1174893 -64.43359 4.6346316 255 125 0
-3.8755753 -63.64344 -8.123845 255 125 0
-0.6801087 -57.16107 -4.3882594 255 125 0
-3.4245434 -63.20695 -8.848805 255 125 0
-1.0277008 -69.10869 -5.0917954 255 125 0
-4.832317 -66.45363 6.5333548 255 125 0
-1.6030692 -63.01216 -7.837789 255 125 0
-4.3726716 -64.844765 4.882099 255 125 0
-5.0266123 -64.18675 2.1982703 255 125 0
-3.6841385 -70.983284 8.589384 255 125 0
-2.3735936 -64.35996 -8.506454 255 125 0
-2.7982256 -65.09929 8.209709 255 125 0
-3.4297514 -64.123795 -0.4938763 255 125 0
-3.7559512 -70.2505 8.124929 255 125 0
-2.4521494 -66.29817 -5.4976664 255 125 0
-4.6318817 -58.69027 -2.7724924 255 125 0
-3.297276 -64.661865 7.182685 255 125 0
-4.880782 -67.8751 7.3098392 255 125 0
-3.3773363 -59.387783 -8.017414 255 125 0
-2.111022 -64.45807 -6.5697775 255 125 0
-2.0602577 -63.20443 -5.8683057 255 125 0
-4.7729816 -65.06789 1.3638027 255 125 0
-3.4354773 -66.510376 -0.0946572 255 125 0
-5.221546 -59.593086 -3.461712 255 125 0
-5.367439 -66.04914 2.8532977 255 125 0
-4.302106 -63.00586 -1.0724853 255 125 0
-5.2165656 -59.860046 -3.2716618 255 125 0
-4.057851 -60.165863 -7.8679953 255 125 0
-1.9333819 -66.87596 -3.051536 255 125 0
-2.3017974 -60.986095 -7.624742 255 125 0
-3.9133976 -65.9061 8.445626 255 125 0
-3.2774572 -67.34309 9.148469 255 125 0
-4.5049586 -58.998466 -6.1564493 255 125 0
-3.727961 -66.13357 9.402492 255 125 0
-4.1066546 -60.12133 -0.7828055 255 125 0
-3.9405813 -61.89936 0.8351816 255 125 0
-3.6626601 -67.041985 8.256592 255 125 0
-0.29657075 -55.64653 -2.9113297 255 125 0
-2.9372387 -65.18882 1.3881702 255 125 0
-2.7929835 -67.39763 -3.1529047 255 125 0
-2.1785598 -67.32414 -1.5046856 255 125 0
-4.4753404 -58.545048 -4.57952 255 125 0
-3.92559 -60.937027 -3.3061 255 125 0
-2.9874654 -68.83162 8.424116 255 125 0
1.3578539 -56.11165 -2.4389906 255 125 0
-0.6166421 -70.59437 -0.90238833 255 125 0
-4.141868 -66.82866 5.9355383 255 125 0
-3.636551 -64.967316 7.9913206 255 125 0
-0.26384112 -56.254974 -4.3713384 255 125 0
-5.298873 -59.900085 -3.8973343 255 125 0
0.012690186 -68.69121 -2.733546 255 125 0
-2.9677591 -67.434875 9.255253 255 125 0
-1.3222052 -71.14833 -5.2973433 255 125 0
-3.447484 -65.38556 -1.011117 255 125 0
-2.401441 -66.03981 -3.103995 255 125 0
-3.4696913 -63.605556 -6.8676305 255 125 0
-4.372701 -60.682068 -5.5854754 255 125 0
-2.5390177 -65.5668 7.0478735 255 125 0
-5.194217 -61.7297 0.08355063 255 125 0
-1.7577715 -72.89986 -4.531149 255 125 0
-4.0646553 -64.773315 0.36656708 255 125 0
-2.3557827 -65.8746 3.332833 255 125 0
-0.5155065 -69.517166 -2.2758586 255 125 0
-3.14802 -65.18483 -0.3681573 255 125 0
-4.28257 -65.92679 7.4437485 255 125 0
-2.2231746 -67.69156 -2.8828688 255 125 0
-0.5623888 -70.61317 -1.9839194 255 125 0
-3.4916568 -65.47284 -1.3160607 255 125 0
-0.59958667 -68.621735 -3.2437177 255 125 0
-3.48091 -60.13481 -0.980862 255 125 0
-5.23153 -59.946648 -4.985409 255 125 0
-4.4600973 -64.75532 0.7897254 255 125 0
-0.3452564 -66.992485 -10.010461 255 125 0
-3.0401773 -65.52764 0.4194185 255 125 0
-3.3656454 -64.00771 0.9621267 255 125 0
-2.219203 -64.68835 -6.4047966 255 125 0
-3.7949374 -65.04901 7.725583 255 125 0
-1.7390476 -58.83507 -2.3016093 255 125 0
-2.4381914 -63.1417 -6.4971423 255 125 0
-4.179178 -64.58388 4.913026 255 125 0
-3.8838532 -66.0831 -2.5876296 255 125 0
-0.7440596 -65.871895 -10.064388 255 125 0
-4.786856 -65.62226 1.3673874 255 125 0
-2.4575562 -66.172424 10.349904 255 125 0
-3.5097263 -67.275406 9.536169 255 125 0
-2.3783808 -67.18352 9.257208 255 125 0
0.91619813 -57.312767 -2.7828321 255 125 0
-4.4349704 -65.76851 6.8976116 255 125 0
-2.8889134 -61.786148 -7.0897703 255 125 0
0.6779326 -57.72756 -3.985241 255 125 0
-4.127486 -65.28319 0.38942632 255 125 0
-3.9782364 -63.489296 3.1315577 255 125 0
-4.606353 -63.95108 -0.17244786 255 125 0
-3.7940526 -64.6179 -0.3989825 255 125 0
-3.1851952 -65.42975 -1.269486 255 125 0
-2.4445376 -60.07089 -7.1119566 255 125 0
-2.472414 -57.423103 -3.8143053 255 125 0
-2.9971812 -65.31244 -7.768261 255 125 0
-3.7361774 -68.47176 8.49595 255 125 0
-2.5799766 -65.89803 7.122654 255 125 0
-0.8325378 -70.282684 -1.2990632 255 125 0
-2.656455 -65.366875 2.147497 255 125 0
-4.630414 -59.55638 -6.28115 255 125 0
-0.8274059 -64.30944 -8.41512 255 125 0
-5.3158646 -61.970062 -0.0029334286 255 125 0
-5.212895 -60.143265 -3.2265935 255 125 0
-5.405478 -61.46163 -1.5023434 255 125 0
-3.006915 -66.679855 -5.5643 255 125 0
-2.7251143 -61.428444 -9.053438 255 125 0
-0.9603065 -57.72548 -4.2892394 255 125 0
-3.6685605 -66.934456 9.531211 255 125 0
-3.4303935 -66.52523 -6.0127025 255 125 0
-3.0178936 -65.72066 0.18131565 255 125 0
-2.374705 -60.712654 -7.4649687 255 125 0
-3.4010224 -58.64143 -5.1165695 255 125 0
-3.192069 -61.95016 -7.1565886 255 125 0
-5.076421 -59.258556 -4.468289 255 125 0
-4.059059 -68.43599 8.390204 255 125 0
-1.7247647 -63.376545 -8.408773 255 125 0
-3.6043673 -64.5709 6.555509 255 125 0
-3.6062245 -58.762337 -7.1867886 255 125 0
-1.4942181 -56.942547 -4.16675 255 125 0
-1.7856681 -67.25737 -3.0770884 255 125 0
-2.9139214 -68.27295 10.378834 255 125 0
-3.6822753 -66.9828 -2.3818917 255 125 0
-4.373755 -64.7383 4.5620365 255 125 0
-4.4971795 -68.34364 7.9870768 255 125 0
-2.9946249 -67.03922 8.405291 255 125 0
-3.9213588 -66.33894 -5.381863 255 125 0
-3.3726354 -59.519917 -1.1596767 255 125 0
-2.5550125 -65.06172 -4.1694527 255 125 0
-3.6516929 -64.43541 5.84748 255 125 0
-3.0337422 -65.29118 9.300594 255 125 0
-2.8418632 -60.095543 -1.8562412 255 125 0
-3.7943347 -66.370316 9.234203 255 125 0
-0.39156085 -69.09209 -2.2546782 255 125 0
-1.9853159 -62.678696 -8.817861 255 125 0
-3.2225099 -64.60998 -4.9704857 255 125 0
-2.605735 -62.913296 -5.218564 255 125 0
-4.387736 -59.879726 -7.090876 255 125 0
-2.244033 -64.068634 -5.985279 255 125 0
-3.252985 -61.229576 -9.012983 255 125 0
-3.8159692 -64.27828 -7.0055485 255 125 0
-3.7734833 -67.09842 -2.7991295 255 125 0
-4.287619 -65.37553 0.8594277 255 125 0
-2.72339 -70.05869 9.07488 255 125 0
-4.706 -64.56054 0.73871785 255 125 0
-3.1303625 -66.424934 3.8417048 255 125 0
-5.183613 -62.029186 0.4879058 255 125 0
-0.7986011 -56.35095 -4.1953053 255 125 0
-3.6334 -66.62987 -0.31680122 255 125 0
-5.036024 -66.18712 5.759366 255 125 0
-3.4175382 -70.58824 8.103389 255 125 0
-2.0900712 -67.68877 9.929 255 125 0
-2.9918194 -63.992584 -8.830143 255 125 0
-3.6685216 -65.92528 -6.691497 255 125 0
-3.3146474 -60.589146 -8.696463 255 125 0
-2.4045408 -66.25378 8.643335 255 125 0
-4.367538 -66.319984 3.122178 255 125 0
-2.5020306 -67.5923 -1.5917408 255 125 0
-5.388834 -62.817226 0.40970832 255 125 0
-2.3712325 -58.578552 -4.08772 255 125 0
-3.7951286 -62.199806 -7.568821 255 125 0
-3.657691 -66.80408 6.6536975 255 125 0
-2.4394422 -67.92671 -2.3440213 255 125 0
-3.8138878 -64.97978 7.4406185 255 125 0
-2.235869 -65.20544 -6.518024 255 125 0
-3.5989456 -69.322464 7.5579166 255 125 0
-0.57785344 -70.17213 -1.4397588 255 125 0
-0.6583898 -67.03755 -2.689164 255 125 0
-0.3955118 -70.42705 -2.2464147 255 125 0
-3.6421356 -58.47165 -4.893679 255 125 0
-3.5652087 -64.09288 -0.7506756 255 125 0
-2.192877 -65.13081 -6.815572 255 125 0
-4.0786443 -62.219147 1.3701518 255 125 0
-2.497057 -64.71402 -8.202238 255 125 0
-3.8505955 -61.182285 -0.066848695 255 125 0
-3.1094906 -66.04981 -6.8301973 255 125 0
-1.3365402 -55.998142 -3.161428 255 125 0
-1.0408852 -64.31383 -8.622556 255 125 0
-3.814751 -61.139114 -2.3894954 255 125 0
-0.95362234 -66.66913 -3.4864771 255 125 0
-0.7630745 -68.76495 -4.2895226 255 125 0
-3.7714658 -66.88185 -4.565911 255 125 0
-1.5561106 -71.13694 -5.036148 255 125 0
-2.445753 -65.9321 3.89761 255 125 0
-0.6102058 -70.24705 -2.3312402 255 125 0
-4.4087644 -65.40533 6.4808908 255 125 0
-0.99402106 -64.912186 -9.073058 255 125 0
-2.3553607 -65.09465 -5.7899485 255 125 0
-3.8079002 -64.92459 -5.6735716 255 125 0
-1.1229067 -70.6369 -1.3891729 255 125 0
-0.46018422 -68.46318 -2.3648443 255 125 0
-2.8784328 -59.76828 -3.9249897 255 125 0
-3.5959637 -65.631035 -2.9394467 255 125 0
-4.9922495 -61.133453 -0.2270433 255 125 0
-2.3040583 -66.866165 -1.4153907 255 125 0
-4.139687 -64.307884 4.236916 255 125 0
-4.0567007 -65.38806 7.525527 255 125 0
-1.5890354 -59.1257 -3.4796445 255 125 0
-3.6796908 -63.905262 -8.537729 255 125 0
-3.9414916 -59.67393 -7.841532 255 125 0
-3.8816252 -66.96057 -3.8896 255 125 0
-3.5218525 -62.91712 0.48836535 255 125 0
-2.6177664 -67.55864 -2.9320102 255 125 0
-4.110395 -58.5346 -6.2573395 255 125 0
-4.0692725 -66.931145 6.1972218 255 125 0
-4.172097 -60.65234 -4.9691153 255 125 0
-0.21773899 -67.46788 -3.612752 255 125 0
-0.570426 -66.93159 -10.187669 255 125 0
-2.4774067 -60.25111 -7.952052 255 125 0
-3.8471477 -64.54777 -6.8720174 255 125 0
-3.2008462 -65.96043 0.5122367 255 125 0
-3.1040785 -58.914757 -6.1433954 255 125 0
-0.65679455 -58.49306 -3.7936063 255 125 0
-2.3923762 -65.90002 8.904091 255 125 0
-3.9271805 -64.2377 4.469206 255 125 0
-3.946232 -60.65886 -8.135627 255 125 0
-3.739646 -60.926376 -6.213527 255 125 0
-4.7098856 -58.67237 -3.8874073 255 125 0
-0.92382634 -56.65001 -4.253733 255 125 0
-1.4432213 -56.61935 -2.479661 255 125 0
-2.7364857 -64.77435 6.329259 255 125 0
-5.451311 -65.82994 3.3912551 255 125 0
-1.5115501 -71.991776 -4.828705 255 125 0
-3.8727717 -65.197464 -6.998357 255 125 0
-2.657453 -65.01308 6.5325165 255 125 0
-3.9100685 -60.676434 -5.093768 255 125 0
-3.2072253 -63.78566 3.0936906 255 125 0
-4.4859786 -62.094986 1.3023442 255 125 0
-3.062228 -61.46341 -9.157428 255 125 0
-5.2659435 -59.86313 -4.4737034 255 125 0
-0.56199116 -56.829277 -2.3531222 255 125 0
-2.9640193 -68.08925 10.168515 255 125 0
-2.7387068 -66.92959 8.5157 255 125 0
-2.6641324 -59.911896 -3.6119792 255 125 0
-0.6157516 -67.75856 -4.024153 255 125 0
-4.553086 -64.971054 1.0210522 255 125 0
-2.5362506 -70.094765 8.856804 255 125 0
-3.873633 -63.82573 -7.603194 255 125 0
-2.148756 -66.53946 10.856258 255 125 0
-3.886876 -60.9997 -2.9781623 255 125 0
-4.848627 -58.991173 -2.813299 255 125 0
-2.8449597 -60.193874 -2.9974833 255 125 0
-0.8424628 -56.27502 -2.5994973 255 125 0
-1.6654073 -62.948433 -7.4614267 255 125 0
-4.396479 -63.091583 2.390295 255 125 0
-4.508234 -61.853123 -2.191704 255 125 0
-1.5780528 -58.5487 -2.2861402 255 125 0
-0.4963577 -57.5613 -4.3393173 255 125 0
-4.975986 -62.120342 0.9127978 255 125 0
-3.3875458 -64.94926 8.278827 255 125 0
-2.4584775 -66.31174 -5.020741 255 125 0
-3.0729775 -62.9138 -4.2092595 255 125 0
-1.3666134 -70.04838 -4.922047 255 125 0
-2.8325832 -64.646484 3.0206711 255 125 0
-2.6241822 -66.27413 7.603305 255 125 0
-5.385063 -66.0222 4.3820543 255 125 0
-2.6210535 -65.480415 9.083732 255 125 0
-1.8080626 -58.08584 -1.8502058 255 125 0
-4.0212703 -66.18792 -5.0551147 255 125 0
-3.4861994 -61.6767 -1.0927254 255 125 0
-3.0597432 -58.95821 -5.5532503 255 125 0
-3.5719366 -60.43889 -3.9636984 255 125 0
-3.3135924 -65.50585 -2.9047177 255 125 0
-1.1916983 -66.82661 -3.5323224 255 125 0
-3.0241187 -62.3552 -9.282219 255 125 0
-1.3782083 -57.174774 -2.2108014 255 125 0
-3.1970823 -66.208786 3.1306934 255 125 0
-5.219622 -62.70031 -1.1448257 255 125 0
-3.8333435 -60.042564 -8.109552 255 125 0
-5.4171014 -63.152412 0.17488897 255 125 0
-4.470475 -66.50741 4.4193554 255 125 0
-3.683449 -64.514275 6.1463366 255 125 0
0.09339616 -57.454456 -2.4855134 255 125 0
-4.1476326 -61.024895 -3.1157575 255 125 0
-3.955983 -59.027534 -1.5225623 255 125 0
-2.2805407 -56.689217 -3.0009751 255 125 0
-2.9279764 -60.76155 -6.555635 255 125 0
-3.5459967 -62.06102 -0.6493118 255 125 0
-2.6946003 -63.03232 -9.215215 255 125 0
-1.4597893 -68.238235 -2.9998884 255 125 0
1.9514985 -56.81064 -2.7754385 255 125 0
-1.7825351 -73.32705 -4.7648582 255 125 0
-3.4733891 -68.91748 8.744634 255 125 0
-4.76838 -60.55969 -4.3011575 255 125 0
-3.186965 -66.37427 4.134345 255 125 0
-3.8960786 -69.95982 8.008837 255 125 0
-2.2391682 -59.1528 -1.658819 255 125 0
-1.1351908 -55.971313 -2.952243 255 125 0
-0.83106196 -57.41439 -4.3452125 255 125 0
-5.422157 -66.148796 4.7187867 255 125 0
-4.436809 -66.05518 0.17583828 255 125 0
-1.9130226 -67.6047 -1.6510824 255 125 0
-5.0567966 -60.199173 -1.853621 255 125 0
-4.0346727 -65.81066 -0.9332515 255 125 0
-2.8648038 -65.57795 -1.4499819 255 125 0
-1.3061342 -68.27789 -3.3409069 255 125 0
-2.8174915 -65.12346 0.81920844 255 125 0
-2.7079575 -66.336235 -6.1480737 255 125 0
-1.0784807 -71.65258 -4.9646053 255 125 0
-3.2423096 -65.68411 1.3057497 255 125 0
-5.392909 -61.379692 -1.1531428 255 125 0
-5.1223874 -65.3403 3.533455 255 125 0
-3.22618 -66.1916 -6.605591 255 125 0
-0.43675178 -67.88716 -10.416124 255 125 0
-5.1044283 -65.67386 1.9852152 255 125 0
-4.0263286 -60.807976 -6.1144886 255 125 0
-1.7629852 -72.21115 -4.8196135 255 125 0
-3.15117 -63.709064 -6.3238387 255 125 0
-2.6642265 -63.340336 -6.548092 255 125 0
-2.8289135 -67.02831 -1.4331479 255 125 0
-2.9980373 -64.787796 7.353949 255 125 0
1.5483149 -57.34208 -3.8518095 255 125 0
-2.5505397 -67.39616 9.340191 255 125 0
-0.23457462 -69.602264 -3.0178595 255 125 0
-2.7631543 -59.48969 -7.76993 255 125 0
-3.7490501 -64.164474 -8.356728 255 125 0
-5.4346056 -62.045174 -1.0366852 255 125 0
-2.5564814 -65.42346 6.6730914 255 125 0
-4.0395727 -68.50235 7.1306434 255 125 0
-2.5665846 -65.01061 5.874287 255 125 0
-2.3555913 -65.735016 3.666056 255 125 0
-1.325894 -66.98505 -3.0576172 255 125 0
-1.69035 -56.776382 -4.0356174 255 125 0
-3.3851812 -66.386795 -6.272581 255 125 0
-4.5531006 -58.8948 -5.802329 255 125 0
-1.085396 -68.42171 -3.2325807 255 125 0
-2.853139 -65.10707 2.7108629 255 125 0
-0.15791404 -67.9583 -3.1854963 255 125 0
-2.8990135 -64.70648 6.7152376 255 125 0
-0.22271854 -68.03547 -2.8872542 255 125 0
-3.7827706 -63.902863 -7.2615995 255 125 0
-2.364725 -63.82019 -8.8912115 255 125 0
-4.899351 -64.80354 1.273754 255 125 0
-1.1132393 -56.151367 -2.7315352 255 125 0
-1.8073258 -72.60324 -4.8005753 255 125 0
-5.044526 -59.368095 -5.2532024 255 125 0
-1.5277909 -72.37492 -4.815166 255 125 0
-3.4249675 -70.2723 7.970446 255 125 0
-3.7382984 -62.243607 0.9652442 255 125 0
-2.4522614 -65.09135 -5.364767 255 125 0
-3.5081475 -62.278557 -9.00717 255 125 0
-3.9185834 -65.3088 -0.22207381 255 125 0
-4.564185 -66.53036 4.1504874 255 125 0
-3.1229932 -65.753235 -7.254817 255 125 0
-4.675219 -61.84577 0.8853971 255 125 0
-1.5098457 -64.102356 -7.480093 255 125 0
-5.5740542 -66.450455 4.709809 255 125 0
-1.9101977 -59.14192 -2.4109523 255 125 0
-2.0907571 -63.969128 -6.2011747 255 125 0
-3.4155335 -58.632915 -6.2676687 255 125 0
-2.4242682 -70.18854 8.6153145 255 125 0
-0.6431503 -56.85163 -4.3739 255 125 0
-2.6057727 -71.01574 8.265936 255 125 0
0.049686037 -69.93721 -2.6773937 255 125 0
-3.265818 -65.66371 2.0967965 255 125 0
-3.0115361 -65.055824 -8.056712 255 125 0
-5.2350216 -65.7061 2.403965 255 125 0
-4.1087055 -65.648575 -0.57738006 255 125 0
-2.642877 -65.145065 3.1906304 255 125 0
-2.905045 -66.99022 -4.603077 255 125 0
-1.7290611 -62.739826 -7.8767023 255 125 0
-3.570454 -66.67475 -0.7322183 255 125 0
-4.940651 -65.75637 1.6644645 255 125 0
-3.676724 -66.37189 5.3496914 255 125 0
-3.2199612 -66.66775 -0.92623127 255 125 0
-0.21297395 -70.19965 -2.511003 255 125 0
-4.4937515 -66.363144 1.4069278 255 125 0
-4.653008 -60.56678 -5.1642566 255 125 0
-4.2025557 -64.04923 -0.13738579 255 125 0
-4.550972 -68.06714 7.881653 255 125 0
-0.95317286 -67.98504 -2.1698384 255 125 0
-0.46613204 -56.35652 -2.541594 255 125 0
-0.8678565 -55.82499 -3.7886484 255 125 0
-3.8673115 -62.779922 2.044347 255 125 0
-2.5614486 -64.9703 -7.956798 255 125 0
-1.7701435 -66.56354 -1.5885957 255 125 0
-3.4966307 -66.218575 3.2900436 255 125 0
-2.0524843 -66.57855 9.690295 255 125 0
-2.7306876 -62.714035 -7.036792 255 125 0
-0.53459346 -57.47526 -2.3309543 255 125 0
-3.5174167 -65.6235 -2.6631815 255 125 0
-1.1800848 -56.599358 -4.1194143 255 125 0
-3.868575 -66.65186 8.599447 255 125 0
-2.8626366 -67.20743 8.867727 255 125 0
-2.989407 -64.150955 2.7520995 255 125 0
-2.8187165 -65.33438 2.3939388 255 125 0
-2.6415715 -60.59857 -8.547606 255 125 0
-0.3494719 -67.34016 -2.825465 255 125 0
-4.4668455 -65.140015 5.3553786 255 125 0
-4.177536 -60.953293 -3.4539664 255 125 0
-3.847974 -64.181076 -8.078117 255 125 0
-3.9379578 -63.618835 -0.28010228 255 125 0
-3.1292949 -69.879555 7.7917733 255 125 0
-2.4894745 -65.672714 8.278781 255 125 0
-2.7781932 -66.53153 7.5699224 255 125 0
-3.6500573 -62.521675 -0.3120931 255 125 0
-2.8542712 -65.830734 4.873758 255 125 0
-5.2178235 -59.50114 -4.4179673 255 125 0
-0.549983 -57.781696 -2.4292107 255 125 0
-3.3421967 -58.67511 -6.5476265 255 125 0
-3.0852456 -64.91842 -0.27709448 255 125 0
-4.404961 -59.74887 -1.1724684 255 125 0
-5.316107 -63.472763 0.9322374 255 125 0
-1.4218805 -66.75577 -1.75493 255 125 0
-4.09157 -68.87244 8.502293 255 125 0
-1.7912512 -58.681644 -3.9788814 255 125 0
-4.9393682 -66.977394 6.9232225 255 125 0
-2.9083543 -59.39439 -5.9918385 255 125 0
-5.114668 -59.703064 -2.9877167 255 125 0
-4.342493 -58.894783 -6.7466187 255 125 0
0.2926756 -57.941933 -3.9142218 255 125 0
-2.8842568 -64.363235 3.0339334 255 125 0
-3.4153616 -63.137604 1.3392396 255 125 0
-3.63849 -61.952244 -1.175826 255 125 0
-0.35939628 -67.49386 -10.610914 255 125 0
-4.778822 -60.791443 -3.4729617 255 125 0
-4.061672 -66.0495 -4.7905054 255 125 0
-3.5362587 -67.21543 -2.603444 255 125 0
-2.512925 -66.3441 -1.2554078 255 125 0
-4.9787107 -58.950928 -3.7180886 255 125 0
-2.6083393 -65.66733 6.5403824 255 125 0
-4.3829913 -67.66778 6.403982 255 125 0
-2.7442477 -64.64646 3.5122201 255 125 0
-5.281157 -59.962822 -4.182672 255 125 0
-2.1326346 -64.84129 -6.7519155 255 125 0
-3.5305386 -67.40556 -2.9739704 255 125 0
-4.581005 -63.601166 -0.5642675 255 125 0
-2.892396 -60.567806 -8.6919565 255 125 0
-3.07077 -66.77896 -1.1733603 255 125 0
0.90038115 -57.521812 -4.1171455 255 125 0
-3.3379178 -57.65174 -3.1005924 255 125 0
-3.6636536 -62.230183 -0.9092758 255 125 0
-4.309683 -66.21067 -0.54339385 255 125 0
-3.878954 -66.71602 -4.815663 255 125 0
-0.8622585 -58.455917 -2.8172626 255 125 0
-3.3059974 -64.21338 -0.739874 255 125 0
-3.1581748 -64.24276 2.1435604 255 125 0
-3.864305 -65.11722 -5.4543333 255 125 0
-2.9165812 -59.21804 -4.7269316 255 125 0
-2.8255115 -66.22287 3.0864105 255 125 0
-2.712938 -66.28877 10.538546 255 125 0
-4.525476 -65.86349 6.5007586 255 125 0
-2.7391865 -60.567932 -6.669431 255 125 0
-3.8531795 -66.50885 8.840906 255 125 0
-3.4440396 -63.93539 -8.694316 255 125 0
